ply
format ascii 1.0
comment PCL generated
element vertex 1407
property float x
property float y
property float z
element camera 0
property float view_px
property float view_py
property float view_pz
property float x_axisx
property float x_axisy
property float x_axisz
property float y_axisx
property float y_axisy
property float y_axisz
property float z_axisx
property float z_axisy
property float z_axisz
property float focal
property float scalex
property float scaley
property float centerx
property float centery
property int viewportx
property int viewporty
property float k1
property float k2
end_header
0.54257452 -0.33212009 0.67500037
0.54212922 -0.33167714 0.67494398
0.54215974 -0.33184442 0.67495316
0.54180741 -0.33145148 0.67509007
0.54140323 -0.33116221 0.67503464
0.54099905 -0.33087298 0.67497927
0.54059494 -0.33058372 0.6749239
0.54019076 -0.33029449 0.67486852
0.53978664 -0.33000523 0.67481315
0.53938246 -0.329716 0.67475778
0.53897834 -0.32942674 0.67470235
0.53857416 -0.3291375 0.67464697
0.53817004 -0.32884824 0.6745916
0.53776586 -0.32855898 0.67453623
0.53736168 -0.32826975 0.6744808
0.53695756 -0.32798049 0.67442542
0.53655338 -0.32769123 0.67437011
0.54519242 -0.33448246 0.67532253
0.54516363 -0.3344619 0.67531919
0.54516727 -0.33448625 0.67532045
0.54517698 -0.33447158 0.67532665
0.54291928 -0.33285677 0.6750592
0.54250723 -0.33307248 0.67503113
0.54272979 -0.33272639 0.67524618
0.54232568 -0.33243713 0.67519081
0.54192156 -0.3321479 0.67513537
0.54132223 -0.33216211 0.67489147
0.54151738 -0.33185863 0.67508
0.54111326 -0.33156937 0.67502463
0.54070902 -0.33128014 0.6749692
0.5403049 -0.33099088 0.67491376
0.53990072 -0.33070165 0.67485845
0.5394966 -0.33041239 0.67480308
0.53909248 -0.33012316 0.67474771
0.5386883 -0.32983389 0.67469233
0.53828418 -0.32954466 0.67463696
0.53788 -0.3292554 0.67458153
0.53747582 -0.32896614 0.6745261
0.53707165 -0.32867691 0.67447072
0.53666753 -0.32838765 0.67441535
0.53626341 -0.32809839 0.67435998
0.54585171 -0.3360993 0.67544299
0.54543692 -0.3358236 0.67539573
0.54460734 -0.33527222 0.67530131
0.54238689 -0.33309063 0.67502123
0.54240882 -0.33321068 0.67502773
0.54203564 -0.33284429 0.67518073
0.54134989 -0.33234897 0.67490113
0.54163152 -0.33255509 0.6751253
0.54112935 -0.33219126 0.67487556
0.54116446 -0.3323836 0.67488605
0.54082322 -0.33197653 0.67501456
0.5404191 -0.3316873 0.67495912
0.54001486 -0.33139804 0.67490375
0.53961074 -0.33110881 0.67484838
0.53920656 -0.33081955 0.67479306
0.53880244 -0.33053032 0.67473763
0.53838754 -0.33023638 0.67480415
0.53799415 -0.32995182 0.67462683
0.53759003 -0.32966256 0.67457145
0.53718579 -0.3293733 0.67451608
0.53678167 -0.32908407 0.67446071
0.53635556 -0.32878521 0.67465425
0.53597337 -0.32850555 0.6743499
0.54586935 -0.33619577 0.67544824
0.54577261 -0.33621037 0.67544031
0.5458101 -0.33615401 0.67546427
0.54536718 -0.33583665 0.67539012
0.54537761 -0.33590689 0.6753937
0.54540575 -0.33586463 0.67541164
0.54461175 -0.33529636 0.67530257
0.54486716 -0.33576548 0.67534328
0.5445841 -0.3352766 0.67529941
0.54459667 -0.33528581 0.67530942
0.54336298 -0.33444518 0.67515957
0.54251581 -0.3337974 0.6750598
0.54214978 -0.33354074 0.67522597
0.54174566 -0.33325148 0.67517054
0.54134148 -0.33296224 0.67511517
0.54093736 -0.33267298 0.6750598
0.54053319 -0.33238375 0.67500442
0.54012907 -0.33209449 0.67494905
0.53972483 -0.33180523 0.67489362
0.53932071 -0.331516 0.6748383
0.53891659 -0.33122674 0.67478287
0.53851241 -0.3309375 0.6747275
0.53810829 -0.33064824 0.67467213
0.53770411 -0.33035898 0.67461675
0.53729999 -0.33006975 0.67456126
0.53689575 -0.32978046 0.67450595
0.53649163 -0.32949123 0.67445052
0.53608745 -0.32920197 0.67439514
0.53568333 -0.32891271 0.67433983
0.54527122 -0.33691418 0.67542315
0.54493219 -0.33614013 0.67536342
0.54485643 -0.33663848 0.67537594
0.54470056 -0.33597776 0.67547077
0.54429436 -0.33568394 0.67528951
0.54430693 -0.33569309 0.67529655
0.54375732 -0.3356075 0.67523921
0.54387647 -0.33539236 0.67553902
0.54328448 -0.33496174 0.67517257
0.54272813 -0.33456382 0.67510813
0.54307228 -0.33481562 0.67538208
0.54204869 -0.33407792 0.6750294
0.54163772 -0.3342931 0.67500138
0.54146141 -0.33366117 0.6750946
0.54105145 -0.3333694 0.67510515
0.54064733 -0.33308014 0.67504972
0.54005766 -0.33307928 0.67481518
0.54024321 -0.33279091 0.67499435
0.53983903 -0.33250165 0.67493892
0.53943485 -0.33221239 0.67488354
0.53903067 -0.33192316 0.67482817
0.53862655 -0.3316339 0.67477286
0.53822237 -0.33134466 0.67471749
0.53781825 -0.3310554 0.67466211
0.53741413 -0.33076614 0.67460662
0.53700995 -0.33047691 0.67455125
0.53660583 -0.33018765 0.67449588
0.53618956 -0.32989314 0.67457724
0.53579748 -0.32960916 0.67438507
0.5353871 -0.32931715 0.67440039
0.54622543 -0.33814868 0.67555499
0.54528868 -0.33700967 0.67542839
0.54539585 -0.33759731 0.67546052
0.54523009 -0.33696833 0.67544419
0.54482567 -0.33667895 0.67539161
0.54442078 -0.33638939 0.67534465
0.54401666 -0.33610013 0.67528927
0.5434137 -0.33566871 0.67521125
0.54359782 -0.33580449 0.67539996
0.54299432 -0.33536878 0.67516267
0.54243833 -0.33497119 0.67509824
0.54266781 -0.33542109 0.67513579
0.54277736 -0.33522069 0.67542702
0.54151595 -0.33431149 0.67499143
0.54095286 -0.33439651 0.674945
0.54117143 -0.33406833 0.67508459
0.54076147 -0.33377656 0.67509508
0.54008901 -0.33329099 0.67482609
0.54035729 -0.3334873 0.67503965
0.53983921 -0.33311233 0.67479718
0.5398789 -0.33333021 0.67480904
0.53954899 -0.33290881 0.6749289
0.53914481 -0.33261955 0.67487353
0.53874069 -0.33233032 0.6748181
0.53833652 -0.33204105 0.67476279
0.5379324 -0.33175182 0.67470735
0.53752822 -0.33146256 0.67465198
0.5371241 -0.3311733 0.67459661
0.53671992 -0.33088407 0.67454123
0.5363158 -0.33059481 0.67448586
0.53590387 -0.33030221 0.67451781
0.53550744 -0.33001631 0.674375
0.53510326 -0.32972705 0.67431968
0.54625595 -0.33831599 0.67556411
0.54606414 -0.33817884 0.67554188
0.54608816 -0.33834133 0.67555028
0.54615331 -0.33824357 0.67559183
0.54541755 -0.3377164 0.67546695
0.54534447 -0.33766484 0.67548668
0.5449031 -0.33743098 0.67541057
0.54494005 -0.33737549 0.67543405
0.54453492 -0.33708581 0.67538989
0.54410881 -0.33678699 0.67558342
0.54372686 -0.33650741 0.67527646
0.54312378 -0.33607596 0.6752013
0.54330051 -0.33620849 0.67547268
0.54289079 -0.33591679 0.67548043
0.54080641 -0.33441865 0.67493284
0.540268 -0.33449996 0.67488849
0.54047143 -0.33418372 0.67508495
0.54006726 -0.33389446 0.67502958
0.53966314 -0.33360523 0.6749742
0.539083 -0.33358961 0.67474878
0.53925896 -0.33331597 0.67491877
0.53885478 -0.33302671 0.67486334
0.53845066 -0.33273748 0.67480797
0.53804648 -0.33244821 0.67475265
0.53764236 -0.33215898 0.67469728
0.53723818 -0.33186972 0.67464185
0.53683406 -0.33158046 0.67458647
0.53642994 -0.33129123 0.67453104
0.53602576 -0.33100197 0.67447567
0.53560948 -0.33070746 0.67455715
0.53521049 -0.33042043 0.67444366
0.53479129 -0.33012462 0.67455852
0.53438979 -0.32983655 0.67447299
0.54512721 -0.33812338 0.67545706
0.54499125 -0.33802611 0.67544132
0.5450545 -0.338072 0.67547667
0.54447359 -0.3376559 0.67538136
0.54440051 -0.33813649 0.6753934
0.54408765 -0.33771768 0.67534965
0.544231 -0.33748689 0.67553747
0.54382318 -0.33723098 0.67530757
0.54384077 -0.33720374 0.67532444
0.54328775 -0.33712465 0.67525619
0.54341465 -0.33690488 0.67551798
0.54264194 -0.33634594 0.67516917
0.54301047 -0.33661565 0.6754626
0.54261678 -0.33635062 0.67516714
0.54262519 -0.33633462 0.67519367
0.54009694 -0.33452582 0.67487437
0.53958315 -0.3346034 0.67483205
0.53977728 -0.33430165 0.6750195
0.53911793 -0.33382568 0.674761
0.53918815 -0.33429992 0.67478544
0.5393731 -0.33401239 0.67496407
0.53883934 -0.33362642 0.67472869
0.53888357 -0.33386943 0.67474198
0.53856474 -0.33343387 0.67485332
0.53816062 -0.33314466 0.67479795
0.53775644 -0.33285537 0.67474258
0.53735232 -0.33256614 0.67468721
0.53692621 -0.33226731 0.67488068
0.53654402 -0.33198762 0.6745764
0.53613991 -0.33169839 0.67452103
0.53573573 -0.33140913 0.67446566
0.53533155 -0.33111989 0.67441016
0.53490543 -0.33082104 0.67460376
0.53451067 -0.33053589 0.67444211
0.53409982 -0.33024371 0.67446297
0.54483688 -0.3385303 0.67544711
0.54471844 -0.33854818 0.67543733
0.54476446 -0.33847916 0.67546666
0.54430991 -0.33815345 0.67538607
0.54435903 -0.33818939 0.67542511
0.54369551 -0.33826822 0.67533624
0.54341644 -0.33780196 0.67529368
0.54294765 -0.33717915 0.6752283
0.54286587 -0.33771688 0.67524183
0.54245347 -0.33743784 0.67519462
0.54272044 -0.33702281 0.67545247
0.5419606 -0.33647326 0.67511398
0.54231632 -0.33673355 0.6753971
0.54192817 -0.33645129 0.67516053
0.54149693 -0.33620667 0.67506272
0.53896821 -0.33433318 0.67476732
0.5390082 -0.33455259 0.6747793
0.53867888 -0.33413032 0.67489862
0.53827477 -0.33384106 0.67484325
0.53787059 -0.33355182 0.67478782
0.53746647 -0.33326256 0.67473251
0.53706229 -0.33297333 0.67467713
0.53665817 -0.33268407 0.67462176
0.53625399 -0.33239484 0.67456633
0.53584987 -0.33210558 0.67451096
0.53544569 -0.33181632 0.67445552
0.53501958 -0.33151749 0.67464906
0.5346154 -0.33122823 0.67459369
0.53423321 -0.33094853 0.67428946
0.53380978 -0.33065087 0.6744529
0.54412735 -0.33863747 0.67538863
0.54403353 -0.33865163 0.67538089
0.54406989 -0.33859697 0.67540413
0.54366481 -0.33830729 0.67535973
0.54323864 -0.33800846 0.67555326
0.54250115 -0.3374745 0.67520028
0.54285651 -0.3377288 0.67524892
0.54245055 -0.33743829 0.67519438
0.54167074 -0.33688059 0.67510408
0.54202622 -0.33714071 0.67538708
0.54161215 -0.33683872 0.67509729
0.54163802 -0.33685845 0.67515117
0.54105967 -0.33644357 0.67503333
0.54097855 -0.33693439 0.67504501
0.54066724 -0.33651346 0.67500132
0.5395475 -0.33551139 0.67486387
0.53909701 -0.33503991 0.67480594
0.53913277 -0.33523569 0.67481667
0.53879303 -0.33482671 0.67494398
0.53838885 -0.33453748 0.67488855
0.53798467 -0.33424821 0.67483318
0.53758049 -0.33395898 0.67477781
0.53717637 -0.33366972 0.67472243
0.53677225 -0.33338049 0.67466706
0.53636807 -0.33309123 0.67461169
0.53596395 -0.332802 0.67455626
0.53555977 -0.33251274 0.67450088
0.53515565 -0.33222347 0.67444551
0.53473932 -0.33192897 0.67452711
0.5343253 -0.33163539 0.67458367
0.53392118 -0.33134612 0.67452824
0.53350633 -0.33105221 0.67459446
0.54341781 -0.33874461 0.6753301
0.54365587 -0.33918184 0.67536795
0.54337478 -0.33871442 0.67534953
0.54297066 -0.33842519 0.67529416
0.54221892 -0.3378872 0.67519122
0.54256648 -0.33813593 0.67523879
0.54216021 -0.33784524 0.67518443
0.541381 -0.33728793 0.67509419
0.54173625 -0.33754787 0.67537689
0.54134792 -0.33726555 0.67514175
0.54090267 -0.33694583 0.67503875
0.540941 -0.3369751 0.67511714
0.54037166 -0.33656609 0.67497724
0.54052371 -0.33668008 0.67521077
0.53996724 -0.33663812 0.67494434
0.53964508 -0.33604643 0.67489308
0.53931129 -0.33581236 0.6750446
0.53890711 -0.3355231 0.67498928
0.53850299 -0.33523387 0.67493385
0.53809881 -0.33494461 0.67487848
0.53769463 -0.33465534 0.67482311
0.53729051 -0.33436611 0.67476767
0.53688633 -0.33407685 0.6747123
0.53648221 -0.33378762 0.67465693
0.53607804 -0.33349836 0.67460155
0.53565192 -0.3331995 0.67479509
0.5352478 -0.33291027 0.67473966
0.53484368 -0.33262101 0.67468423
0.53443944 -0.33233178 0.67462891
0.54372472 -0.33957869 0.67538935
0.54332787 -0.33964226 0.67535675
0.54347932 -0.3394067 0.67550302
0.54308474 -0.33912161 0.67533946
0.54268062 -0.33883238 0.67528409
0.54193729 -0.33830038 0.67518228
0.54227644 -0.33854312 0.67522871
0.54186988 -0.33825219 0.67517447
0.54109126 -0.3376953 0.67508429
0.54118896 -0.33835503 0.67511839
0.54145324 -0.3379581 0.67528713
0.54104108 -0.33770466 0.67508024
0.54061234 -0.33735278 0.6750288
0.54023367 -0.33708727 0.6752007
0.53952503 -0.33657515 0.67490286
0.53982955 -0.33679804 0.67514527
0.53935474 -0.33645338 0.67488319
0.53938186 -0.33660194 0.67489129
0.53902125 -0.33621955 0.67503458
0.53861713 -0.33593026 0.67497915
0.53821295 -0.33564103 0.67492378
0.53780878 -0.33535177 0.67486835
0.5374046 -0.3350625 0.67481297
0.53700048 -0.33477327 0.6747576
0.53659636 -0.33448401 0.67470229
0.53619218 -0.33419478 0.67464691
0.53578806 -0.33390552 0.67459148
0.53536195 -0.33360666 0.67478508
0.53495777 -0.33331743 0.67472959
0.54291618 -0.33961505 0.67531937
0.54278421 -0.33952418 0.67544824
0.54239058 -0.33923954 0.67527407
0.54165572 -0.33871359 0.6751734
0.54198641 -0.33895028 0.6752187
0.5411604 -0.33835933 0.675116
0.54040992 -0.33782262 0.6750291
0.54075205 -0.33807296 0.67530137
0.54032201 -0.33775973 0.67501891
0.54033595 -0.33783644 0.67502308
0.53971404 -0.33785155 0.67496872
0.5391354 -0.33691594 0.67507994
0.53873122 -0.33662671 0.67502445
0.5383271 -0.33633745 0.67496908
0.53792298 -0.33604819 0.6749137
0.53751874 -0.33575895 0.67485833
0.53709263 -0.3354601 0.67505181
0.53671044 -0.33518046 0.67474753
0.53630632 -0.3348912 0.67469215
0.53590214 -0.33460194 0.67463684
0.53549802 -0.33431271 0.67458141
0.53507191 -0.33401388 0.67477494
0.53385937 -0.33314613 0.67460883
0.5426268 -0.34002265 0.6753096
0.54271501 -0.34050256 0.67533582
0.54249877 -0.33993334 0.67538685
0.54210055 -0.3396467 0.675264
0.54137361 -0.33912641 0.6751644
0.54169661 -0.33935753 0.67520642
0.54087007 -0.33876628 0.67510611
0.54087538 -0.33879524 0.67510766
0.54034823 -0.33867723 0.67505658
0.54046881 -0.33848304 0.67521459
0.53972858 -0.33794993 0.67497385
0.54005778 -0.33819085 0.67523599
0.53961247 -0.3378669 0.67496043
0.53964555 -0.3379477 0.67496639
0.53966397 -0.33790609 0.67506373
0.53924954 -0.33761236 0.67512518
0.53884536 -0.3373231 0.67506981
0.53844124 -0.33703387 0.67501444
0.53803706 -0.33674461 0.67495906
0.53763294 -0.33645535 0.67490369
0.5372287 -0.33616611 0.67484826
0.53682458 -0.33587685 0.67479283
0.53641009 -0.33558309 0.67485493
0.53601629 -0.33529836 0.67468214
0.53559017 -0.33499953 0.67487568
0.53518605 -0.33471027 0.67482024
0.53478187 -0.33442104 0.67476487
0.54275143 -0.34072638 0.67534763
0.54261619 -0.34063122 0.67539424
0.54213625 -0.34045708 0.67528296
0.54220867 -0.34034047 0.67537761
0.54174089 -0.34015414 0.67523646
0.54180747 -0.34005255 0.67528844
0.54132414 -0.33970559 0.67518234
0.54140323 -0.33976322 0.67523402
0.54078615 -0.33932087 0.67512
0.54076439 -0.339809 0.67513692
0.54040641 -0.33904928 0.67507601
0.54057616 -0.33917651 0.67533666
0.54001915 -0.33877233 0.67503119
0.53993851 -0.33925247 0.67504257
0.5397557 -0.33859274 0.67536277
0.53935832 -0.33830643 0.67523098
0.5389595 -0.33801952 0.67511505
0.53855532 -0.33773026 0.67505974
0.5381512 -0.33744103 0.6750043
0.53774709 -0.33715177 0.67494887
0.53734291 -0.3368625 0.6748935
0.53693879 -0.33657327 0.67483813
0.53651255 -0.33627442 0.67503166
0.53610843 -0.33598518 0.67497623
0.53572625 -0.33570552 0.67467195
0.53530014 -0.33540669 0.67486554
0.53489602 -0.33511743 0.67481011
0.53449184 -0.3348282 0.67475474
0.53287524 -0.33367118 0.67453319
0.54246235 -0.34113422 0.67533785
0.54220927 -0.34095323 0.67530859
0.54224092 -0.34116814 0.67531961
0.54232615 -0.34103835 0.67538482
0.54171818 -0.34104395 0.67526865
0.54120636 -0.34023598 0.67519236
0.54130375 -0.34076774 0.6752215
0.5411132 -0.34017038 0.67522454
0.54070675 -0.33988014 0.6751951
0.54027349 -0.33957818 0.67546922
0.53989887 -0.33930182 0.67507946
0.53946561 -0.33899987 0.67535359
0.53906167 -0.3387107 0.67529583
0.53866947 -0.33842668 0.67510498
0.53786117 -0.33784819 0.67499423
0.53745133 -0.33755645 0.67500317
0.53704202 -0.33726496 0.67500681
0.53662944 -0.336972 0.67504698
0.53623867 -0.33668864 0.6748389
0.5358184 -0.33639234 0.67496616
0.53542417 -0.33610743 0.67479855
0.5350101 -0.33581385 0.67485547
0.53460598 -0.33552459 0.6748001
0.53420186 -0.33523536 0.67474473
0.53379339 -0.33494422 0.67473799
0.5333935 -0.33465683 0.67463386
0.53258014 -0.33407614 0.67458034
0.54225761 -0.34200269 0.67535323
0.5417546 -0.34124261 0.67527956
0.54162842 -0.34115472 0.67535931
0.54115951 -0.34097025 0.67521656
0.54122454 -0.34086558 0.67530155
0.5408206 -0.34057641 0.67524368
0.54041666 -0.34028727 0.67518592
0.53960878 -0.33970892 0.67507035
0.53917551 -0.339407 0.67534447
0.53877157 -0.33911783 0.67528665
0.53836763 -0.33882871 0.67522877
0.53755975 -0.3382504 0.6751132
0.53715581 -0.33796123 0.67505544
0.53651989 -0.3380456 0.6746943
0.53675187 -0.33767205 0.67499769
0.53634799 -0.33738291 0.67493987
0.53594398 -0.33709374 0.67488205
0.53392434 -0.335648 0.67459309
0.5335204 -0.33535883 0.67453521
0.53311646 -0.33506966 0.67447752
0.54230279 -0.34224927 0.6753667
0.54201955 -0.34204668 0.67533392
0.54214627 -0.3421402 0.6754657
0.54146546 -0.34165046 0.67526972
0.54123545 -0.34148595 0.67524308
0.54133832 -0.34156185 0.67535001
0.54062819 -0.34105164 0.67517275
0.5405305 -0.34098354 0.6752345
0.54012656 -0.3406944 0.67517668
0.53972262 -0.34040523 0.67511892
0.53931868 -0.34011608 0.67506111
0.53888541 -0.33981413 0.67533529
0.53848147 -0.33952495 0.67527741
0.53807753 -0.33923584 0.6752196
0.53741527 -0.33936256 0.67482412
0.53767359 -0.33894667 0.67516184
0.53726965 -0.33865753 0.67510402
0.53653109 -0.33812147 0.67469817
0.53662455 -0.33875665 0.67473096
0.53686571 -0.33836836 0.67504627
0.53644174 -0.33805758 0.6746878
0.53645599 -0.33813536 0.67469209
0.53605783 -0.33779004 0.67493057
0.53565389 -0.33750087 0.67487282
0.53484601 -0.33692256 0.67475736
0.53443301 -0.33662945 0.67480224
0.53363419 -0.3360551 0.67458385
0.5332303 -0.33576596 0.67452604
0.53158522 -0.33459651 0.67462677
0.53118128 -0.33430737 0.67456901
0.54292202 -0.34364393 0.67547518
0.54201365 -0.34265709 0.67535692
0.54209322 -0.34309146 0.67538071
0.54172862 -0.34245324 0.6753239
0.54185617 -0.3425473 0.67545652
0.54117638 -0.34205827 0.67525995
0.54094458 -0.34189248 0.67523313
0.54097348 -0.34208935 0.67524326
0.54105157 -0.34197044 0.67530298
0.54033905 -0.34145945 0.67516297
0.54018277 -0.34148341 0.6751501
0.54024035 -0.34139067 0.67522538
0.53983647 -0.34110153 0.67516762
0.5394032 -0.34079957 0.67544168
0.53902858 -0.34052318 0.67505199
0.53862458 -0.34023407 0.67499411
0.53819138 -0.33993211 0.67526823
0.53741628 -0.33936915 0.67482442
0.53778744 -0.33964297 0.67521042
0.53740853 -0.3393636 0.67482352
0.53740972 -0.33937034 0.67482394
0.53663218 -0.33880839 0.67473358
0.53697956 -0.33906466 0.6750949
0.53657126 -0.33876482 0.67472655
0.53658098 -0.33881786 0.67472947
0.53617167 -0.33848631 0.67497927
0.53576767 -0.33819717 0.67492145
0.53495985 -0.33761886 0.67480588
0.53455591 -0.33732969 0.67474806
0.53334409 -0.33646226 0.67457467
0.53294015 -0.33617309 0.67451692
0.54298049 -0.34396312 0.67549264
0.5426138 -0.34370089 0.67545015
0.54265964 -0.34401226 0.67546624
0.54277784 -0.34382191 0.67562079
0.54214323 -0.34336433 0.67539567
0.54221821 -0.34377396 0.67541808
0.54186893 -0.34340632 0.67537302
0.54197454 -0.34324557 0.67545384
0.54143769 -0.34285977 0.67531395
0.54157019 -0.34295624 0.67540044
0.54056054 -0.34266898 0.67522913
0.53963131 -0.34156787 0.67510468
0.53954637 -0.34150869 0.67515832
0.53913319 -0.34121549 0.67520487
0.53873849 -0.34093034 0.67504281
0.53830516 -0.34062839 0.67531693
0.53790122 -0.34033921 0.67525911
0.53750932 -0.34005535 0.6750651
0.5370934 -0.33976093 0.67514354
0.53668946 -0.33947179 0.67508572
0.53628552 -0.33918262 0.67502791
0.53547764 -0.3386043 0.67491233
0.53507364 -0.33831513 0.67485458
0.53466976 -0.33802599 0.6747967
0.53426582 -0.33773682 0.67473888
0.53344852 -0.33715442 0.67472994
0.53305399 -0.33686936 0.67456555
0.53265005 -0.33658022 0.67450774
0.53060067 -0.33512145 0.67455494
0.54227269 -0.34407154 0.67543435
0.54193079 -0.34382704 0.67539477
0.54208374 -0.3439399 0.67555386
0.54143536 -0.34347272 0.67533737
0.54114676 -0.34326631 0.67530394
0.54118288 -0.3435114 0.67531651
0.54127592 -0.34336156 0.67543817
0.54059809 -0.34287393 0.6752404
0.54068553 -0.34335151 0.67526644
0.54036266 -0.34270555 0.6752131
0.54046798 -0.34278324 0.67532259
0.53985679 -0.34279904 0.67517203
0.53934216 -0.34197572 0.6750949
0.53944236 -0.34252277 0.67512482
0.53920603 -0.34199658 0.6750837
0.53925616 -0.34191579 0.67514926
0.53885227 -0.34162664 0.67509139
0.53844833 -0.3413375 0.67503363
0.53801501 -0.34103554 0.67530775
0.53761107 -0.34074637 0.67524999
0.53720719 -0.34045723 0.67519212
0.53680325 -0.34016806 0.67513442
0.5363993 -0.33987892 0.67507654
0.53599536 -0.33958974 0.67501879
0.53518748 -0.33901143 0.67490315
0.5343796 -0.33843312 0.67478752
0.53397566 -0.33814394 0.67472976
0.53276384 -0.33727652 0.67455637
0.5323599 -0.33698735 0.67449856
0.52990574 -0.33523905 0.67449743
0.54198354 -0.34447935 0.67542452
0.54163992 -0.3442336 0.6753847
0.54179865 -0.34434921 0.67548829
0.54072762 -0.34358114 0.67527902
0.54058564 -0.34348121 0.67532796
0.54017788 -0.34319037 0.67531341
0.53977394 -0.34290123 0.67525566
0.53928769 -0.34255135 0.67511225
0.53937 -0.34261206 0.6751979
0.53863442 -0.34208414 0.67503655
0.53873861 -0.3426528 0.67506772
0.53893977 -0.34231147 0.67543769
0.53856218 -0.34203377 0.67508221
0.53815824 -0.3417446 0.67502445
0.53775424 -0.34145546 0.67496663
0.53732097 -0.3411535 0.67524076
0.53691703 -0.34086436 0.67518294
0.53651315 -0.34057519 0.67512518
0.53610921 -0.34028605 0.67506737
0.53570527 -0.33999687 0.67500961
0.53530133 -0.33970773 0.67495179
0.53489733 -0.33941856 0.67489392
0.53449339 -0.33912939 0.6748361
0.53368556 -0.33855107 0.67472059
0.5320698 -0.33739448 0.67448932
0.5296157 -0.33564621 0.67448771
0.54134899 -0.34464011 0.67537469
0.54150355 -0.34475416 0.67553544
0.54093564 -0.34471649 0.67534113
0.54043853 -0.34398898 0.67526925
0.5405212 -0.34444022 0.67529392
0.54029173 -0.34388667 0.67536205
0.53989124 -0.34359902 0.67526507
0.53945452 -0.34329557 0.67557842
0.5390799 -0.34301919 0.67518866
0.53867596 -0.34273005 0.67513084
0.53746414 -0.34186259 0.67495745
0.53703088 -0.34156063 0.67523158
0.53662694 -0.34127149 0.6751737
0.53622305 -0.34098232 0.675116
0.53581911 -0.34069318 0.67505819
0.53501123 -0.34011483 0.67494261
0.53460729 -0.33982569 0.67488474
0.53420329 -0.33953652 0.67482698
0.53339541 -0.3389582 0.67471147
0.53177971 -0.33780161 0.67448026
0.53137577 -0.33751243 0.67442238
0.5411759 -0.34523711 0.67538244
0.54118836 -0.34515032 0.67581099
0.54081416 -0.34487414 0.67541593
0.5403108 -0.34473562 0.67528671
0.54040986 -0.34458482 0.67536247
0.54000163 -0.3442938 0.67535287
0.53958356 -0.34399849 0.67545474
0.53916442 -0.3437027 0.67556924
0.53858399 -0.34372774 0.6750955
0.53876442 -0.34341526 0.67546695
0.53838587 -0.3431372 0.67512172
0.53798193 -0.34284803 0.67506391
0.53757799 -0.34255886 0.67500615
0.53717405 -0.34226972 0.67494828
0.53677011 -0.34198055 0.67489046
0.5359329 -0.34138945 0.67510682
0.53552902 -0.34110031 0.67504907
0.53472114 -0.34052199 0.67493343
0.53431714 -0.34023282 0.67487562
0.5339132 -0.33994365 0.6748178
0.53350925 -0.33965454 0.67476004
0.53309679 -0.33936164 0.67479891
0.53108561 -0.33791956 0.67441326
0.53068167 -0.33763042 0.67435545
0.54059684 -0.34533137 0.67533499
0.54037517 -0.34517282 0.6753093
0.54051942 -0.34527925 0.67545933
0.53999549 -0.34490129 0.67526531
0.53969783 -0.34469497 0.67549866
0.53929001 -0.3444041 0.67548484
0.53860366 -0.34390593 0.67510408
0.53888917 -0.34411633 0.67539191
0.53840548 -0.34376416 0.67508113
0.53806645 -0.34353152 0.67544448
0.53769183 -0.34325516 0.67505473
0.53728789 -0.34296602 0.67499691
0.53688389 -0.34267685 0.6749391
0.53648001 -0.34238768 0.67488134
0.53607607 -0.34209853 0.67482352
0.5356428 -0.34179658 0.67509764
0.53523892 -0.34150743 0.67503989
0.53443104 -0.34092909 0.67492425
0.5336231 -0.34035078 0.67480868
0.53321916 -0.34006166 0.67475086
0.53241128 -0.33948335 0.67463529
0.53119951 -0.33861586 0.6744619
0.53079557 -0.33832669 0.67440403
0.53039157 -0.33803755 0.67434627
0.54008424 -0.34557936 0.67529923
0.54022932 -0.34568638 0.67545009
0.53957123 -0.34521246 0.6752398
0.53933406 -0.34524876 0.67522031
0.53942138 -0.34510806 0.67533445
0.5389998 -0.34481117 0.67547709
0.53857118 -0.34449726 0.67512399
0.53861356 -0.34452978 0.67521894
0.53796881 -0.34406644 0.67505419
0.53795886 -0.34460536 0.67507416
0.53737247 -0.34364951 0.67537743
0.5369978 -0.34337312 0.67498773
0.53659379 -0.34308398 0.67492992
0.53618991 -0.34279481 0.67487216
0.53575665 -0.34249288 0.67514622
0.53535271 -0.34220371 0.67508847
0.53494877 -0.34191456 0.67503065
0.53414094 -0.34133625 0.67491508
0.533333 -0.34075791 0.6747995
0.53292906 -0.34046879 0.67474163
0.53252512 -0.34017962 0.67468387
0.53090942 -0.33902299 0.67445266
0.53050542 -0.33873382 0.67439485
0.53967172 -0.34589893 0.67527515
0.53990996 -0.34608072 0.67577285
0.53900462 -0.34542185 0.6751979
0.53854436 -0.34549931 0.67516023
0.53871334 -0.34521991 0.6754263
0.53832662 -0.34493828 0.67517382
0.53791952 -0.34464774 0.67515194
0.53711164 -0.34406942 0.67503637
0.5367077 -0.34378028 0.67497855
0.5363037 -0.34349111 0.6749208
0.53589976 -0.34320194 0.67486304
0.53549588 -0.34291279 0.67480516
0.53506261 -0.34261084 0.67507935
0.53425473 -0.34203252 0.67496371
0.53385085 -0.34174335 0.67490596
0.53304291 -0.34116507 0.67479026
0.53263897 -0.34087592 0.67473245
0.53937835 -0.34630367 0.67526489
0.5396198 -0.34648785 0.67576373
0.53815901 -0.34543169 0.67512363
0.53803337 -0.34534404 0.67520064
0.53762943 -0.34505486 0.67514282
0.53721333 -0.34476039 0.67522293
0.53682154 -0.34447655 0.67502725
0.5364176 -0.34418738 0.67496943
0.5360136 -0.34389824 0.67491162
0.53560966 -0.34360906 0.67485374
0.53520578 -0.34331992 0.67479599
0.53477252 -0.34301797 0.67507017
0.53436857 -0.34272882 0.67501235
0.53396463 -0.34243965 0.67495453
0.53356069 -0.34215051 0.67489678
0.53275281 -0.3415722 0.67478114
0.5377872 -0.34578034 0.6751042
0.53767127 -0.34586701 0.67509741
0.53774649 -0.34575257 0.67515486
0.53733933 -0.34546199 0.67513365
0.53690606 -0.34516007 0.67540777
0.53653145 -0.34488368 0.67501801
0.53609818 -0.34458172 0.67529213
0.53572351 -0.34430537 0.67490238
0.53530294 -0.34400892 0.67503327
0.53491563 -0.34372705 0.67478675
0.53448242 -0.3434251 0.67506093
0.53367454 -0.34284678 0.67494535
0.53286672 -0.3422685 0.67482966
0.53246272 -0.34197932 0.6747719
0.53766656 -0.34673154 0.67513025
0.53715885 -0.34594548 0.67505515
0.53725219 -0.34645534 0.67508304
0.53705209 -0.34587035 0.67509204
0.53661597 -0.34556717 0.67539859
0.53621203 -0.34527799 0.67534071
0.53580809 -0.34498882 0.67528296
0.53542674 -0.34470958 0.6749686
0.53500021 -0.34441051 0.67516732
0.53462553 -0.34413415 0.67477763
0.53422076 -0.34384462 0.67472976
0.53338444 -0.34325388 0.67493618
0.53761721 -0.34688795 0.67513192
0.53757066 -0.34685615 0.67518938
0.5371663 -0.34656686 0.67513597
0.53675908 -0.34627625 0.67511529
0.53632587 -0.34597433 0.67538941
0.53592193 -0.34568515 0.67533159
0.53554732 -0.3454088 0.6749419
0.53514332 -0.34511963 0.67488408
0.53471011 -0.34481767 0.67515814
0.53433543 -0.34454131 0.67476851
0.53762722 -0.34750965 0.67515677
0.53704923 -0.3475982 0.67510915
0.53725028 -0.34725004 0.67552298
0.53679919 -0.3470912 0.6750676
0.53687292 -0.34697253 0.67516398
0.53646898 -0.34668335 0.67510617
0.53606504 -0.34639421 0.67504835
0.53563184 -0.34609225 0.67532247
0.53522789 -0.34580308 0.67526466
0.53735745 -0.34802344 0.67515272
0.53629148 -0.34716895 0.6750257
0.53617883 -0.34709048 0.67509699
0.53698468 -0.34827936 0.67512971
0.53707337 -0.34835324 0.67556858
0.5326795 -0.31756404 0.67439479
0.53146601 -0.31669584 0.67423964
0.53106153 -0.31640649 0.67418796
0.53319842 -0.31854999 0.67448777
0.53279394 -0.31826061 0.67443609
0.53238946 -0.3179712 0.67438436
0.53198493 -0.31768185 0.67433274
0.53117597 -0.31710303 0.67422932
0.53452581 -0.32011455 0.67468953
0.53412151 -0.3198252 0.67463607
0.53290844 -0.31895721 0.67447746
0.53209949 -0.31837839 0.6743741
0.53088599 -0.31751019 0.67421901
0.53047466 -0.31721783 0.674245
0.53585428 -0.3216795 0.67488056
0.5354498 -0.32139009 0.67482895
0.53504467 -0.32110041 0.67478472
0.53423572 -0.32052168 0.67468047
0.53383142 -0.32023233 0.67462701
0.5326184 -0.31936437 0.67446715
0.53221393 -0.31907496 0.67441547
0.53677589 -0.32295409 0.67504543
0.5363732 -0.32266545 0.67497349
0.53596872 -0.32237604 0.67492181
0.53556424 -0.32208666 0.67487019
0.53515977 -0.32179725 0.67481852
0.53475529 -0.3215079 0.67476684
0.53434581 -0.32121629 0.67477214
0.53394634 -0.32092911 0.67466348
0.53354186 -0.3206397 0.67461181
0.53232843 -0.31977153 0.67445672
0.53029931 -0.31832162 0.67427444
0.5299015 -0.31803519 0.67414665
0.53770113 -0.32423019 0.67516994
0.53729671 -0.32394081 0.67511827
0.53691155 -0.32365984 0.67484772
0.53651696 -0.32337481 0.67468303
0.53611249 -0.32308543 0.67463136
0.53570801 -0.32279602 0.67457968
0.53530353 -0.32250664 0.67452806
0.53486979 -0.32220447 0.67480814
0.53449458 -0.32192785 0.67442471
0.53408605 -0.32163668 0.67441905
0.5336563 -0.32133627 0.67465311
0.53324646 -0.32104453 0.67466241
0.53284734 -0.32075748 0.67454976
0.53247148 -0.32048059 0.67417413
0.5312295 -0.31959993 0.67434305
0.53081858 -0.31930774 0.67436385
0.53001601 -0.31873173 0.67418808
0.53790861 -0.32498336 0.67481571
0.53784496 -0.32493955 0.67487943
0.53742522 -0.32464349 0.67500067
0.537036 -0.32436079 0.67477614
0.53663152 -0.32407138 0.67472434
0.53622699 -0.323782 0.67467278
0.53582251 -0.32349259 0.67462099
0.53541803 -0.32320318 0.67456937
0.53501356 -0.32291383 0.67451769
0.53460908 -0.32262444 0.67446601
0.5342046 -0.32233503 0.67441434
0.53379613 -0.3220439 0.6744079
0.53296185 -0.32145405 0.67459118
0.53255737 -0.32116464 0.67453945
0.53174251 -0.32058328 0.67450303
0.53013045 -0.31942829 0.67422938
0.52972603 -0.31913891 0.67417771
0.53761828 -0.32539028 0.67480582
0.53755492 -0.32534674 0.67486912
0.53715044 -0.32505733 0.67481744
0.53674597 -0.32476795 0.67476577
0.53634149 -0.32447854 0.67471409
0.53593695 -0.32418919 0.67466235
0.53553253 -0.32389978 0.67461073
0.53512806 -0.32361037 0.674559
0.53472358 -0.32332098 0.67450744
0.53430265 -0.32302439 0.67464215
0.53390986 -0.32274014 0.67445797
0.53348082 -0.32244 0.67468417
0.53307629 -0.32215065 0.67463249
0.53267187 -0.32186124 0.67458087
0.53227937 -0.32157707 0.6743933
0.52984047 -0.31983548 0.67421913
0.52942926 -0.31954312 0.67424399
0.53732795 -0.32579723 0.67479581
0.53726494 -0.3257539 0.67485881
0.53686047 -0.32546449 0.67480713
0.53645599 -0.32517514 0.67475533
0.53605151 -0.32488573 0.67470372
0.53564698 -0.32459635 0.67465198
0.5352425 -0.32430694 0.6746003
0.53483802 -0.32401752 0.67454863
0.53441727 -0.32372105 0.67468166
0.53400558 -0.32342851 0.67471188
0.53362459 -0.32314938 0.67439365
0.53322017 -0.32285997 0.67434198
0.53278631 -0.32255781 0.67462218
0.53238183 -0.3222684 0.6745705
0.53158468 -0.32169479 0.67433333
0.53076392 -0.32111084 0.67436379
0.52995503 -0.32053205 0.67426038
0.52954388 -0.32023978 0.67428356
0.53703755 -0.32620415 0.67478591
0.53697491 -0.32616109 0.67484844
0.53657043 -0.32587171 0.67479676
0.53616601 -0.3255823 0.67474508
0.53576154 -0.32529289 0.67469341
0.535357 -0.32500353 0.67464173
0.53495252 -0.32471412 0.67459005
0.53454804 -0.32442471 0.67453831
0.53413725 -0.32413259 0.67455816
0.53373909 -0.32384592 0.67443502
0.53333002 -0.32355455 0.67443562
0.53289574 -0.32325214 0.67472136
0.53249633 -0.322965 0.67461187
0.53168738 -0.32238618 0.67450845
0.5312829 -0.32209679 0.67445683
0.53087842 -0.32180738 0.67440516
0.52966499 -0.32093924 0.67425013
0.54338282 -0.33176246 0.67556018
0.53674722 -0.3266111 0.67477596
0.53668493 -0.32656825 0.67483819
0.53626919 -0.32627392 0.67491436
0.53587598 -0.32598948 0.67473471
0.53547144 -0.32570007 0.67468309
0.53506696 -0.32541069 0.67463136
0.53466243 -0.32512128 0.67457968
0.53425801 -0.32483187 0.674528
0.53383726 -0.32453537 0.6746614
0.53301531 -0.32395095 0.67470491
0.53261077 -0.32366154 0.67465323
0.53180176 -0.32308275 0.67454988
0.53139734 -0.32279336 0.6744982
0.53058839 -0.3222146 0.67439479
0.54342455 -0.33200118 0.67557305
0.54319745 -0.33183879 0.67554677
0.54318577 -0.33203915 0.67555344
0.5432772 -0.33189783 0.67563611
0.53645682 -0.32701802 0.67476594
0.53639489 -0.32697544 0.67482775
0.53599042 -0.32668602 0.67477608
0.53558594 -0.32639664 0.6747244
0.53518146 -0.32610726 0.67467272
0.53477693 -0.32581788 0.67462105
0.53437245 -0.32552847 0.67456931
0.533961 -0.32523599 0.67459697
0.53354716 -0.32494256 0.67465121
0.53315902 -0.3246603 0.67441434
0.53272033 -0.32435596 0.67475075
0.53151178 -0.32348993 0.67453945
0.53110731 -0.32320052 0.67448777
0.53029835 -0.32262176 0.67438447
0.52868044 -0.32146418 0.67417771
0.5363068 -0.32752532 0.67477226
0.53609467 -0.32737815 0.67493325
0.53570038 -0.32709324 0.67476583
0.5352959 -0.32680383 0.67471409
0.53489143 -0.32651442 0.67466241
0.53448695 -0.32622504 0.67461079
0.53408247 -0.32593563 0.674559
0.533678 -0.32564625 0.67450732
0.53324419 -0.32534409 0.67478758
0.53286904 -0.32506746 0.67440403
0.53246456 -0.32477808 0.67435235
0.53123391 -0.3239024 0.67439222
0.53000838 -0.32302892 0.6743741
0.5296039 -0.32273954 0.67432249
0.53601658 -0.32793236 0.67476237
0.53580463 -0.32778531 0.67492324
0.5354104 -0.3275004 0.67475545
0.53500593 -0.32721099 0.67470378
0.53457218 -0.3269088 0.67498398
0.53419691 -0.32663223 0.67460042
0.53378475 -0.32633945 0.67463589
0.53338796 -0.32605341 0.67449707
0.53298348 -0.32576403 0.67444545
0.53254974 -0.32546186 0.67472553
0.53214526 -0.32517245 0.67467391
0.53174078 -0.32488307 0.67462218
0.53133625 -0.32459369 0.6745705
0.53093177 -0.32430428 0.67451882
0.53052729 -0.32401487 0.67446715
0.52931392 -0.32314673 0.67431217
0.53572643 -0.32833943 0.67475247
0.53551459 -0.32819247 0.67491317
0.53512043 -0.32790756 0.6747452
0.53471595 -0.32761818 0.67469341
0.53431147 -0.32732877 0.67464179
0.53390694 -0.32703939 0.67459011
0.53350246 -0.32674998 0.67453843
0.53309798 -0.3264606 0.6744867
0.53266424 -0.32615843 0.67476696
0.53225976 -0.32586902 0.67471528
0.53185529 -0.32557964 0.6746636
0.53145081 -0.32529023 0.67461193
0.53104627 -0.32500085 0.67456025
0.53064179 -0.32471147 0.67450851
0.54400849 -0.33517414 0.67574692
0.54193151 -0.33379981 0.67551059
0.53529543 -0.32864577 0.67472619
0.53523785 -0.32860541 0.67475301
0.53481501 -0.32830805 0.67490917
0.53442591 -0.32802534 0.67468309
0.53402144 -0.32773596 0.67463142
0.5336169 -0.32744658 0.67457974
0.53321242 -0.32715717 0.67452806
0.53280801 -0.32686776 0.67447639
0.5323742 -0.32656559 0.67475653
0.53196973 -0.32627618 0.67470485
0.5315904 -0.3259978 0.67436856
0.5311901 -0.32571021 0.67426968
0.53075629 -0.32540804 0.67454982
0.53035176 -0.32511863 0.67449814
0.54393482 -0.33543906 0.67575061
0.54365259 -0.33523721 0.67571789
0.54378438 -0.33548874 0.67573923
0.54385036 -0.33538097 0.67583472
0.54192191 -0.33399948 0.67551744
0.54174834 -0.33387533 0.67549735
0.54177189 -0.33402389 0.6755051
0.54182625 -0.33393326 0.6755957
0.53506035 -0.32909226 0.67472267
0.53494781 -0.3290126 0.67474294
0.53452498 -0.32871521 0.67489904
0.53413594 -0.32843253 0.67467272
0.53373146 -0.32814312 0.67462105
0.53332692 -0.32785374 0.67456937
0.53292245 -0.32756433 0.67451775
0.53250176 -0.32726786 0.67465019
0.53211349 -0.32698557 0.6744144
0.53170407 -0.32669401 0.67441869
0.53130454 -0.32640678 0.67431104
0.53087592 -0.32610682 0.67453331
0.53005624 -0.32552338 0.67455065
0.54301858 -0.33570576 0.67568004
0.5347147 -0.32945964 0.67470634
0.53462267 -0.32947436 0.67469877
0.53465778 -0.32941976 0.67473292
0.53425038 -0.3291291 0.67471415
0.5338459 -0.32883972 0.67466247
0.53344148 -0.32855031 0.67461073
0.53303695 -0.32826093 0.67455912
0.53260314 -0.32795873 0.67483926
0.53222799 -0.32768211 0.67445576
0.53179419 -0.32737994 0.67473596
0.53138971 -0.32709056 0.67468435
0.5309853 -0.32680118 0.67463255
0.54303527 -0.33602488 0.67569375
0.54267436 -0.33576676 0.67565197
0.54286569 -0.33590585 0.6757645
0.53401518 -0.32957393 0.67464894
0.5339604 -0.32953626 0.67470372
0.53352666 -0.32923409 0.67498392
0.53315145 -0.32895747 0.67460036
0.53271765 -0.3286553 0.67488056
0.53234243 -0.32837871 0.67449701
0.53192168 -0.32808217 0.67462975
0.53153348 -0.32779992 0.67439371
0.53109974 -0.32749772 0.67467391
0.54274493 -0.33643183 0.67568386
0.5423848 -0.33617428 0.67564213
0.54247034 -0.33647534 0.67566127
0.54257572 -0.33631301 0.67575443
0.54202867 -0.33623737 0.67561311
0.53392839 -0.33012646 0.67466259
0.53363734 -0.32992905 0.67506766
0.53326595 -0.32965407 0.67464179
0.53286147 -0.32936466 0.67459011
0.53164154 -0.32849365 0.67450762
0.53121424 -0.32819429 0.67471528
0.53040528 -0.32761553 0.67461187
0.54204363 -0.33654484 0.67562628
0.5417397 -0.33632749 0.67559111
0.54187453 -0.33642787 0.67576838
0.54129809 -0.33640495 0.67555511
0.5335772 -0.33048987 0.6746456
0.53335112 -0.33033782 0.67501497
0.53294665 -0.33004844 0.6749633
0.53254217 -0.32975903 0.67491162
0.54175317 -0.33695179 0.67561638
0.54158443 -0.33683503 0.67575812
0.54110241 -0.33648637 0.67554098
0.5411799 -0.33654565 0.67570633
0.53411138 -0.33190799 0.67474741
0.53369659 -0.33163229 0.6747002
0.5333693 -0.3309558 0.67464525
0.53339124 -0.33120307 0.67465669
0.53306103 -0.33074498 0.67500472
0.53265661 -0.33045563 0.67495304
0.54146284 -0.33735868 0.67560637
0.54120022 -0.33740038 0.67558479
0.54130095 -0.33724499 0.67567426
0.54076093 -0.33685669 0.67552507
0.5407688 -0.33714798 0.67553699
0.54088992 -0.33695281 0.67569602
0.5346508 -0.33286682 0.67483199
0.53415185 -0.33213007 0.67475951
0.53423595 -0.33259115 0.67478472
0.53401333 -0.33203292 0.67482239
0.53360915 -0.33174366 0.67476708
0.53319222 -0.33144882 0.67485726
0.54001832 -0.33734351 0.67547828
0.53960943 -0.33705959 0.67543125
0.53469992 -0.33313662 0.67484671
0.53477532 -0.33354998 0.6748693
0.53453445 -0.33301979 0.67489147
0.53403443 -0.33287403 0.67477781
0.53412747 -0.33272934 0.67486775
0.53371644 -0.33243707 0.6748904
0.53331304 -0.33214813 0.67482656
0.53290963 -0.33185923 0.67476273
0.53167212 -0.33098054 0.67488068
0.54006052 -0.33758497 0.67549133
0.53990543 -0.33747774 0.67562371
0.5393827 -0.33710021 0.67541283
0.5394181 -0.33732814 0.6754247
0.53950691 -0.33719096 0.67550468
0.53482878 -0.33384335 0.67488533
0.53464884 -0.33371633 0.67493403
0.53410089 -0.33332276 0.67480099
0.53424156 -0.33342576 0.67491311
0.53357124 -0.33294398 0.67473966
0.53365546 -0.33340603 0.67476487
0.53343558 -0.33284825 0.67477632
0.53300714 -0.33254841 0.67499584
0.53260303 -0.33225918 0.67494047
0.53977019 -0.33799189 0.67548144
0.53949243 -0.33779326 0.67544925
0.53952914 -0.33803019 0.67546159
0.53962153 -0.33788759 0.67554432
0.53453851 -0.33425033 0.67487538
0.53435576 -0.33412218 0.67495841
0.53395164 -0.33383292 0.67490298
0.5335474 -0.33354369 0.6748476
0.53305972 -0.33338434 0.67471147
0.53314555 -0.33325541 0.67476636
0.53271717 -0.33295557 0.67498583
0.53232211 -0.3326703 0.67482722
0.53833956 -0.3379842 0.67535484
0.53424817 -0.33465728 0.67486542
0.53395498 -0.33470154 0.67484128
0.53406572 -0.33452934 0.67494828
0.53346992 -0.33452445 0.67479163
0.53364968 -0.33423489 0.67502737
0.53312981 -0.33385745 0.6747359
0.53325737 -0.33395085 0.67483741
0.53257138 -0.3334581 0.67467117
0.53244913 -0.33337232 0.67472678
0.53202295 -0.3330735 0.67492026
0.53161824 -0.332784 0.67487156
0.52999312 -0.33162329 0.67474627
0.54021519 -0.33964115 0.6755842
0.53838205 -0.33822834 0.67536795
0.53810048 -0.33802694 0.67533535
0.53822452 -0.3381196 0.67551214
0.53565872 -0.33659968 0.6750648
0.53523952 -0.33633018 0.67501742
0.53482002 -0.33606118 0.67497003
0.53440011 -0.33579266 0.67492259
0.53311944 -0.33446461 0.67475837
0.53284001 -0.33426479 0.67472601
0.53296739 -0.33435801 0.6748274
0.5322811 -0.33386505 0.67466128
0.53229439 -0.33445868 0.6746853
0.53216112 -0.33378038 0.6746937
0.53174961 -0.33348793 0.67472166
0.53132087 -0.33318794 0.674945
0.54236537 -0.34170204 0.67627901
0.54020536 -0.3401469 0.67560285
0.53974581 -0.33981824 0.67554963
0.53980851 -0.34021205 0.67557031
0.53995168 -0.33997145 0.6758194
0.5381524 -0.33867866 0.67536509
0.53775793 -0.33839652 0.67531937
0.53780723 -0.33873153 0.67533666
0.53793442 -0.33852673 0.67550296
0.53564054 -0.3368822 0.6750741
0.53551072 -0.33679181 0.67515618
0.53503966 -0.33661073 0.67501062
0.53510684 -0.33650264 0.67509842
0.53464431 -0.33630776 0.67496401
0.5347029 -0.3362135 0.6750406
0.53422964 -0.33587319 0.67491066
0.53429824 -0.33592403 0.67499089
0.53277457 -0.33483258 0.67474216
0.53282726 -0.33542666 0.67476964
0.53267735 -0.33476517 0.67481738
0.53227955 -0.33447868 0.67469019
0.53158611 -0.33459499 0.67462808
0.53184599 -0.33417657 0.674968
0.53119111 -0.33429158 0.67458153
0.53144294 -0.33388785 0.67490011
0.53103083 -0.3335951 0.67493486
0.54207981 -0.34211117 0.67621893
0.5353514 -0.33729005 0.67506427
0.53543866 -0.33776659 0.67509031
0.53511482 -0.33712083 0.67503685
0.53514433 -0.33732176 0.67504722
0.53522062 -0.33719894 0.67514694
0.53409547 -0.33639184 0.67491877
0.53419548 -0.33693787 0.67494869
0.53393871 -0.33627972 0.67490059
0.53400886 -0.33633146 0.67497361
0.53283954 -0.33549359 0.67477328
0.53279698 -0.33546397 0.67480016
0.53239304 -0.33517486 0.6747424
0.53158653 -0.33459747 0.67462814
0.53197187 -0.33487815 0.67487985
0.53158402 -0.33459792 0.67462802
0.53117353 -0.3343021 0.67458034
0.53116965 -0.33432168 0.67458075
0.53074819 -0.33400548 0.67484146
0.54178983 -0.34251833 0.6762082
0.53597808 -0.33872533 0.67517489
0.53548092 -0.33799726 0.67510295
0.53521591 -0.33780774 0.67507225
0.53524899 -0.33803278 0.67508388
0.53533447 -0.33789521 0.67519557
0.53422499 -0.33709905 0.67495751
0.53412265 -0.33702776 0.67502224
0.53364778 -0.33668625 0.67489064
0.53366762 -0.3368209 0.67489761
0.53371876 -0.33673859 0.67496443
0.53255039 -0.33590144 0.6747635
0.53250694 -0.33587113 0.67479104
0.53210294 -0.33558199 0.67473328
0.53169715 -0.33529201 0.67469627
0.5312658 -0.33499086 0.67494959
0.53060937 -0.33510816 0.67456162
0.53087318 -0.33470666 0.6747635
0.53044862 -0.33440852 0.67493927
0.5360291 -0.33900389 0.67519015
0.53570908 -0.33877504 0.67515308
0.5358569 -0.33888268 0.67524964
0.53485984 -0.33857909 0.67507058
0.5339359 -0.33750689 0.67494768
0.53374892 -0.33737317 0.67492604
0.53383255 -0.33743489 0.67501307
0.53320229 -0.33747414 0.6748817
0.53226131 -0.33630925 0.67475373
0.53221798 -0.33627877 0.67476869
0.53181285 -0.33598912 0.6747241
0.53140694 -0.33569908 0.67468864
0.53061265 -0.33513018 0.67456275
0.53098744 -0.33540311 0.67480749
0.53058672 -0.33511165 0.67455977
0.53059083 -0.33513421 0.67456102
0.52992338 -0.33521324 0.67450511
0.53016782 -0.33481967 0.67482477
0.54202098 -0.34391248 0.67626554
0.53898227 -0.34222987 0.6755752
0.53573996 -0.33941174 0.67518038
0.53541815 -0.33918154 0.67514312
0.53545839 -0.33945489 0.67515713
0.53556216 -0.33928782 0.67529291
0.53490269 -0.33881292 0.6750834
0.53463405 -0.33862081 0.67505229
0.53466761 -0.33884892 0.67506397
0.53475422 -0.33870947 0.67517728
0.53415602 -0.33870915 0.67501342
0.5336467 -0.33791471 0.6749379
0.53354239 -0.33784202 0.67500389
0.53306592 -0.33749932 0.67487061
0.53313845 -0.33755285 0.67494613
0.53249848 -0.33760417 0.67482454
0.53197217 -0.33671707 0.67474395
0.53192782 -0.3366859 0.67475921
0.53150594 -0.33638892 0.67490494
0.53111666 -0.33610615 0.67468101
0.53071463 -0.33581781 0.6746015
0.5299297 -0.33525634 0.67450738
0.5302816 -0.33551598 0.67487347
0.52989638 -0.33523253 0.67450351
0.53900546 -0.34236172 0.67558229
0.53885335 -0.34225291 0.67556465
0.53887331 -0.34238279 0.67557144
0.53891897 -0.34230238 0.67567348
0.53828382 -0.34235239 0.67551821
0.537875 -0.34206831 0.67547119
0.53552431 -0.34022033 0.67519248
0.53419495 -0.33892134 0.67502505
0.5339511 -0.33874696 0.67499679
0.53406018 -0.33882746 0.67511028
0.53335762 -0.33832252 0.67492807
0.5332523 -0.33824915 0.67499471
0.53284836 -0.33795998 0.67493695
0.53238297 -0.3376255 0.67481518
0.53244442 -0.3376708 0.67487907
0.53168303 -0.33712491 0.67473412
0.53160942 -0.33713618 0.67472804
0.53163779 -0.33709306 0.67474967
0.5312326 -0.33680338 0.67470568
0.53082865 -0.3365142 0.67464787
0.53040719 -0.33621737 0.67478853
0.52963877 -0.33566287 0.67449731
0.52999151 -0.33592311 0.67486423
0.52960664 -0.33563989 0.67449355
0.52959764 -0.33567047 0.67449397
0.54144102 -0.34472686 0.67624414
0.53830546 -0.34247571 0.67552489
0.53818196 -0.34249538 0.67551476
0.53822458 -0.34242016 0.67561096
0.53776366 -0.34208819 0.67546213
0.53778094 -0.34220034 0.67546797
0.53782427 -0.34213263 0.67551172
0.5364781 -0.34145531 0.67532426
0.5355804 -0.34052679 0.67520922
0.53522831 -0.34027499 0.67516845
0.53538585 -0.34039122 0.67533237
0.5339058 -0.33932915 0.67501527
0.53366023 -0.33915353 0.67498684
0.53369093 -0.33936208 0.67499757
0.53377008 -0.33923459 0.6751011
0.53306854 -0.33873034 0.67491829
0.5329622 -0.33865628 0.67498553
0.53255826 -0.3383671 0.67492777
0.53209209 -0.33803204 0.67480516
0.53215432 -0.33807796 0.67486989
0.53150529 -0.33814043 0.67475754
0.53097528 -0.33723333 0.67467582
0.53092337 -0.33724129 0.67467153
0.53094333 -0.33721086 0.67468679
0.53050923 -0.33690855 0.67497063
0.53013462 -0.33663216 0.67458099
0.5297128 -0.33633521 0.67472571
0.52929747 -0.33604109 0.6747973
0.53952879 -0.34397456 0.6760757
0.5364334 -0.3417514 0.67533171
0.5361135 -0.34152266 0.6752947
0.53624558 -0.34178168 0.67531627
0.53630757 -0.34166583 0.67549652
0.53529131 -0.3409346 0.67519945
0.53493744 -0.34068155 0.67515844
0.53509575 -0.34079835 0.67532319
0.53411663 -0.34048039 0.67507821
0.5327794 -0.33913818 0.67490852
0.53287345 -0.33965164 0.67493659
0.53260952 -0.3391642 0.67489451
0.53267211 -0.33906341 0.67497641
0.53226817 -0.33877423 0.67491859
0.53186423 -0.33848512 0.67486072
0.53140914 -0.33815819 0.67474979
0.53142345 -0.33825529 0.67475474
0.53146195 -0.33819667 0.6747843
0.53046429 -0.33748245 0.6746403
0.53023136 -0.33732101 0.67482305
0.52984452 -0.33703929 0.67457187
0.52941132 -0.33673736 0.67484593
0.528184 -0.33586314 0.67484784
0.54045552 -0.34525135 0.67618352
0.53801674 -0.34358531 0.67554218
0.53500217 -0.34134245 0.67518967
0.53464651 -0.34108809 0.67514849
0.53480566 -0.34120548 0.67531401
0.53416491 -0.34074363 0.6750927
0.53386247 -0.34052733 0.67505765
0.53399777 -0.34062716 0.67519838
0.53290898 -0.33984539 0.6749472
0.53268635 -0.33968621 0.67492139
0.53271419 -0.33987522 0.67493117
0.53278595 -0.33975968 0.67502505
0.53207165 -0.3392466 0.67485023
0.53216964 -0.33978167 0.67487949
0.53197807 -0.33918139 0.67490941
0.53151029 -0.3388451 0.6747852
0.53157413 -0.33889222 0.6748516
0.52997839 -0.33774957 0.67460775
0.53009766 -0.33840045 0.67464328
0.52995574 -0.33773446 0.67465019
0.52955443 -0.33744642 0.67456269
0.52912116 -0.33714449 0.6748367
0.52871728 -0.33685535 0.67477894
0.53790855 -0.3440356 0.67554998
0.5374251 -0.3436898 0.67549396
0.53471309 -0.34175026 0.67517984
0.5347811 -0.3421216 0.67520016
0.53435564 -0.34149462 0.67513841
0.53440034 -0.34179816 0.67515409
0.53452075 -0.34161487 0.67524624
0.53387576 -0.34115145 0.6750828
0.53357154 -0.34093386 0.67504758
0.53370762 -0.34103429 0.67518914
0.53220117 -0.33995381 0.67488885
0.53229463 -0.34046417 0.6749168
0.53209192 -0.33987769 0.67495799
0.53168797 -0.33958852 0.67490017
0.53121936 -0.33925164 0.67477512
0.53128403 -0.33929938 0.67484242
0.53063709 -0.33935922 0.67472786
0.53010798 -0.33845681 0.67464638
0.53022265 -0.33908296 0.67468065
0.53007311 -0.33843231 0.67465842
0.52966547 -0.33814153 0.67464244
0.53989899 -0.34607595 0.67589653
0.53771651 -0.34451282 0.67555141
0.53724384 -0.34417477 0.67549664
0.53722781 -0.34469274 0.67551523
0.53484261 -0.34245747 0.67521852
0.53445673 -0.34218153 0.67517382
0.53450501 -0.34250921 0.67519075
0.53463495 -0.34231135 0.67529023
0.53358668 -0.34155926 0.67507303
0.53328067 -0.34134039 0.67503762
0.53341758 -0.34144142 0.67518002
0.53233075 -0.34066105 0.67492759
0.53241968 -0.34114668 0.67495412
0.53220576 -0.34057397 0.67500663
0.53180182 -0.34028482 0.67494887
0.53139788 -0.33999565 0.674891
0.53099394 -0.33970648 0.67483324
0.53059 -0.33941734 0.67477548
0.53420228 -0.34293413 0.67518038
0.5332976 -0.34196711 0.67506325
0.53337353 -0.34238166 0.6750859
0.53298974 -0.34174693 0.67502761
0.53302824 -0.34200835 0.67504102
